# Thingvellir localities
# x y z Locality
492145.95 7111614.13 171.140472 2
492106.8 7111724.56 171.582321 3
491622.46 7112279.66 178.025665 4
491715.53 7112320.64 171.353546 5
491832.29 7112300.27 167.949158 6
491887.6 7112233.27 167.567368 7
491944.83 7112152.88 167.887848 8
488740.94 7113064.38 188.465012 9
488713.52 7113018.79 187.386398 10
488717.3 7112987.58 188.716843 11
488714.33 7112974.22 188.664886 12
488699.14 7112945.3 187.444763 13
488615.31 7112113.18 206.537766 14
488900.94 7111271.92 207.76973 15
491405.48 7112843 176.187927 16
491361.21 7112674.86 206.831146 17
491220.27 7112401.12 188.711456 18
491351.73 7112416.35 185.374893 19
491694.03 7112471.14 168.027466 20
491720.58 7112753 167.572708 21
491753.82 7112809.74 170.33844 22
491769.68 7112916.68 168.208557 23
491594.62 7113143.36 166.914032 24
491636.73 7113239.08 166.585907 25
491560.54 7113315.06 170.012955 26
491564.75 7113432.06 170.306335 27
491491 7113506.92 170.144409 28
491223.13 7113582.33 169.607376 29
491224.59 7113582.33 169.521957 30
490822.25 7113750.65 166.865234 31
490654.95 7113767.86 168.590027 32
490597.52 7113762.46 167.266586 33
490412.22 7113780.86 167.087341 34
490088.36 7113976.89 167.443832 35
490077.32 7114024.85 168.592575 36
490107.8 7114125.04 167.902771 37
491328.06 7113176.41 179.889969 38
491245.57 7113256.88 179.268707 39
491103.94 7113414.4 178.335922 40
490732.04 7113520.24 177.644653 41
490404.99 7113486.69 182.610306 42
490202.6 7113491.79 181.808975 43
489849.16 7113575.39 190.73732 44
489650.13 7113563.79 182.804199 45
489089.93 7113089.88 192.41391 46
488799.73 7112771.09 189.57132 47
489028.91 7112623.18 193.719635 48
489123.02 7112537.04 196.160904 49
489153.55 7112497.93 195.797699 50
489328.41 7112395.92 196.244812 51
489498.25 7112388.65 195.579605 52
489586.52 7112295.86 196.671402 53
489719.31 7112122.69 195.748688 54
489979.15 7112096.21 196.653259 55
490079.6 7111998.94 191.922287 56
490147.67 7111821.54 193.644592 57
490204.01 7111627.46 192.556885 58
490470.24 7112081.29 197.631195 59
490678.18 7111950.28 190.495331 60
490890.25 7112056.63 196.18718 61
490935.75 7112304.99 192.141647 62
490890.79 7112571.46 194.191788 63
490880.81 7112655.06 195.334869 64
490890.02 7112807.7 198.52179 65
490940.62 7113137.4 192.45369 66
489749.34 7111930.92 197.188004 67
489658.02 7111845.42 197.355865 68
489376.21 7111858.63 200.058456 69
489194.1 7111985.18 199.67659 70
489126.16 7112043.37 199.822266 71
488935.31 7112168.85 198.891434 72
488854.27 7112102.28 197.170044 73
488720.65 7111901.07 205.152176 74
488634.71 7111696.34 206.481918 75
488404.5 7111321.65 209.239288 76
488247.91 7111243.12 208.334808 77
488282.87 7111086.98 212.253784 78
488407.1 7110976.19 209.927673 79
488477.97 7110914.64 209.457489 80
488606.18 7110820.56 210.217667 81
488639.89 7110852.75 210.665634 82
488719.77 7110856.92 210.054504 83
488843.14 7110768.44 206.590729 84
489555.23 7112543.35 193.574768 85
489592.17 7112819.59 193.354553 86
489689.07 7112981.96 193.456573 87
489876.19 7113359.11 192.851181 88
489930.83 7113404.62 180.211121 89
