ncols        176
nrows        30
xllcorner    1089342.73791
yllcorner    3782006.58045
cellsize     27.719567592875
0      0      0 775.00018310546875 776.4923095703125 777.54498291015625 780.21417236328125 785.61590576171875 792.49566650390625 799.3760986328125 805.08917236328125 807.07177734375 806.0284423828125 801.32354736328125 796.32769775390625 790.7091064453125 785.43792724609375 784.1080322265625 786.36749267578125 790.45562744140625 790.347412109375 781.35565185546875 771.7540283203125 763.01043701171875 755.28759765625 753.8240966796875 760.1083984375 766.63861083984375 767.39752197265625 764.08892822265625 748.23260498046875 747.68707275390625 748.39996337890625 748.71240234375 748.68084716796875 747.49627685546875 746.33721923828125 744.9564208984375 743.5260009765625 745.09259033203125 749.684326171875 753.37750244140625 756.24688720703125 763.14154052734375 773.2996826171875 778.2017822265625 776.85748291015625 771.70770263671875 767.99951171875 763.64239501953125 756.009521484375 748.695556640625 743.74847412109375 740.91473388671875 739.85247802734375 740.87347412109375 743.26141357421875 744.10498046875 743.3895263671875 745.1007080078125 759.55267333984375 765.91754150390625 767.58709716796875 768.53729248046875 772.76678466796875 780.406982421875 787.15997314453125 798.853759765625 805.87603759765625 809.06341552734375 812.015625 816.16546630859375 817.27789306640625 812.330810546875 795.947998046875 790.5477294921875 790.32183837890625 797.85565185546875 807.52825927734375 812.504150390625 814.57867431640625 817.28778076171875 819.43182373046875 803.4044189453125 802.29962158203125 799.75653076171875 800.544189453125 802.66070556640625 797.20953369140625 789.6572265625 781.25982666015625 770.1219482421875 757.91094970703125 748.439208984375 744.06402587890625 744.0556640625 746.42620849609375 749.8905029296875 753.18572998046875 756.826904296875 760.0867919921875 739.72967529296875 727.79638671875 716.6802978515625 706.09149169921875 697.40283203125 693.55792236328125 693.6446533203125 698.8028564453125 709.48455810546875 722.5382080078125 734.38153076171875 743.89764404296875 751.28387451171875 746.8956298828125 736.0433349609375 724.3428955078125 715.6922607421875 709.394775390625 713.0059814453125 705.79620361328125 699.32403564453125 693.5347900390625 685.89764404296875 679.19384765625 676.12835693359375 675.548095703125 678.0438232421875 677.138671875 667.23785400390625 650.82672119140625 633.6153564453125 619.6717529296875 608.13751220703125 600.03448486328125 595.35858154296875 592.2933349609375 590.0081787109375 590.318359375 594.1173095703125 601.9482421875 629.55401611328125 641.882080078125 649.11846923828125 651.78778076171875 653.97540283203125 657.92034912109375 663.23388671875 668.234619140625 673.19769287109375 679.83331298828125 688.55865478515625 696.25006103515625 698.1007080078125 696.1834716796875 684.64385986328125 690.99798583984375 701.503173828125 715.8885498046875 729.44439697265625 740.58184814453125 747.1839599609375 749.25128173828125 750.53741455078125 749.02301025390625 742.2039794921875 735.1544189453125 731.28082275390625 722.1778564453125 718.4805908203125 717.2867431640625      0      0      0      0      0
0      0      0 772.56292724609375 773.60003662109375 774.8245849609375 776.72882080078125 784.80987548828125 792.0557861328125 799.94012451171875 806.499267578125 808.52874755859375 806.0284423828125 801.32354736328125 792.74285888671875 786.2825927734375 780.79925537109375 779.27471923828125 782.10791015625 786.125732421875 786.3779296875 771.71710205078125 763.6251220703125 755.9688720703125 749.2596435546875 747.47796630859375 751.128173828125 754.482177734375 753.64404296875 750.69207763671875 748.23260498046875 747.68707275390625 738.97772216796875 738.43328857421875 738.8905029296875 739.0513916015625 739.396728515625 739.85504150390625 740.1357421875 741.533447265625 743.49127197265625 744.232421875 744.85125732421875 748.367431640625 755.93994140625 762.2520751953125 764.96710205078125 767.23846435546875 767.99951171875 763.64239501953125 758.18902587890625 754.58648681640625 749.78009033203125 746.08587646484375 742.51934814453125 738.07562255859375 735.252197265625 734.6966552734375 735.23480224609375 738.8126220703125 745.9486083984375 754.408935546875 755.7012939453125 759.68267822265625 766.701904296875 775.5091552734375 787.15997314453125 791.4464111328125 796.33563232421875 796.6380615234375 798.09527587890625 800.94024658203125 801.2216796875 797.3326416015625 790.560302734375 777.78192138671875 776.56243896484375 784.3800048828125 793.4693603515625 796.37908935546875 796.7261962890625 798.39208984375 801.249755859375 803.4044189453125 802.29962158203125 785.767822265625 788.74371337890625 793.547119140625 794.12811279296875 790.440185546875 784.8006591796875 774.98602294921875 763.72296142578125 754.1922607421875 745.43109130859375 739.53826904296875 737.30322265625 738.4697265625 740.80462646484375 743.10504150390625 746.42132568359375 746.776123046875 727.79638671875 707.3800048828125 699.31060791015625 692.3192138671875 688.2796630859375 686.5928955078125 689.24920654296875 698.61651611328125 712.7039794921875 726.45623779296875 736.62005615234375 743.590087890625 746.4124755859375 740.18115234375 732.439453125 725.47296142578125 719.279541015625 713.0059814453125 705.79620361328125 709.21295166015625 701.94989013671875 693.06365966796875 686.4891357421875 684.2799072265625 686.23638916015625 689.84429931640625 688.62872314453125 668.92718505859375 655.3018798828125 640.96954345703125 626.20635986328125 611.959228515625 601.24822998046875 595.03631591796875 591.74169921875 590.0081787109375 590.318359375 600.24078369140625 609.04107666015625 620.6534423828125 638.2335205078125 638.6998291015625 637.1529541015625 639.3189697265625 643.8577880859375 647.2103271484375 650.22021484375 657.9349365234375 670.133544921875 681.2392578125 685.91448974609375 683.693603515625 681.267578125 681.5091552734375 680.76666259765625 692.89593505859375 707.1162109375 721.34283447265625 733.6282958984375 741.3731689453125 744.82586669921875 746.54217529296875 744.82513427734375 738.48724365234375 732.53765869140625 728.19854736328125 722.11468505859375 710.5516357421875 706.48199462890625      0      0      0      0      0
0      0      0 771.6873779296875 773.37799072265625 775.77642822265625 779.0653076171875 782.43115234375 794.418701171875 802.1246337890625 807.65087890625 809.33404541015625 806.32977294921875 799.62969970703125 792.74285888671875 786.2825927734375 776.32379150390625 775.04595947265625 777.53424072265625 778.86590576171875 775.6947021484375 763.1029052734375 757.1199951171875 751.487060546875 746.8330078125 744.166748046875 744.22808837890625 744.65155029296875 743.62493896484375 741.958251953125 740.0052490234375 739.1226806640625 738.97772216796875 738.43328857421875 732.86688232421875 733.96173095703125 734.89385986328125 736.41448974609375 737.5753173828125 738.53558349609375 738.56298828125 736.91937255859375 735.4224853515625 735.9400634765625 740.31939697265625 745.67230224609375 749.87518310546875 754.46343994140625 759.08795166015625 759.78302001953125 758.18902587890625 754.58648681640625 752.1151123046875 748.57672119140625 741.522216796875 733.22515869140625 728.20989990234375 727.47509765625 729.40386962890625 733.9920654296875 739.823486328125 742.47613525390625 743.94091796875 750.66802978515625 759.30792236328125 768.6185302734375 780.39202880859375 791.4464111328125 796.33563232421875 782.55059814453125 784.699951171875 787.576904296875 786.83599853515625 782.45062255859375 776.30084228515625 763.59661865234375 763.935791015625 772.25079345703125 779.07611083984375 778.11651611328125 775.21697998046875 775.4554443359375 779.29742431640625 784.04901123046875 785.52935791015625 785.767822265625 788.74371337890625 778.28070068359375 783.59246826171875 786.2476806640625 782.71014404296875 774.67645263671875 765.63726806640625 756.91961669921875 746.7498779296875 737.670166015625 731.6947021484375 729.42620849609375 728.22967529296875 726.89996337890625 727.517333984375 727.54901123046875 715.02801513671875 707.3800048828125 699.31060791015625 688.93603515625 684.05078125 681.69720458984375 682.20513916015625 688.67108154296875 701.27099609375 714.3204345703125 723.75433349609375 729.8309326171875 733.584716796875 736.77374267578125 736.66851806640625 732.1038818359375 727.948486328125 723.29742431640625 716.21942138671875 709.21295166015625 701.94989013671875 703.6085205078125 697.7349853515625 693.90301513671875 693.920654296875 693.26220703125 686.3529052734375 664.23101806640625 654.38043212890625 640.69708251953125 624.94049072265625 610.359619140625 598.28692626953125 591.190185546875 589.02093505859375 589.75115966796875 593.636474609375 600.24078369140625 609.04107666015625 625.9625244140625 631.76336669921875 627.1978759765625 623.210205078125 624.83319091796875 629.13720703125 631.88787841796875 635.7113037109375 646.35064697265625 661.13958740234375 672.71490478515625 675.2218017578125 669.58251953125 665.5123291015625 666.35888671875 680.76666259765625 692.89593505859375 700.47406005859375 713.99334716796875 726.1075439453125 735.26519775390625 740.00048828125 740.8760986328125 738.1956787109375 733.75213623046875 731.1531982421875 728.6964111328125 723.15997314453125 715.50872802734375 698.5128173828125      0      0      0      0      0
0      0      0 771.91485595703125 774.08050537109375 777.83172607421875 783.05194091796875 788.39508056640625 793.9637451171875 805.14349365234375 808.13916015625 808.06378173828125 803.73284912109375 796.121337890625 788.2479248046875 781.51068115234375 776.32379150390625 775.04595947265625 770.30316162109375 768.99615478515625 763.62738037109375 758.2784423828125 752.56011962890625 749.91473388671875 746.09552001953125 741.04840087890625 737.00665283203125 735.33294677734375 735.785888671875 736.168701171875 734.81072998046875 733.02490234375 732.05316162109375 731.89044189453125 732.86688232421875 733.74468994140625 730.28802490234375 732.43255615234375 734.31536865234375 735.24102783203125 734.72857666015625 731.96563720703125 729.18902587890625 728.51763916015625 730.44598388671875 733.23699951171875 736.15338134765625 739.61541748046875 742.32440185546875 749.062255859375 752.83331298828125 753.8428955078125 752.1151123046875 743.9251708984375 736.9776611328125 728.29681396484375 723.096923828125 721.58172607421875 723.69891357421875 727.79718017578125 730.94781494140625 731.3468017578125 730.79632568359375 743.17718505859375 751.37982177734375 760.4232177734375 771.5452880859375 780.55682373046875 783.28790283203125 782.55059814453125 784.699951171875 774.317138671875 773.09564208984375 768.7132568359375 763.29248046875 756.3682861328125 753.23455810546875 760.97869873046875 764.4144287109375 760.50274658203125 756.0396728515625 756.97149658203125 761.8887939453125 765.17822265625 764.5858154296875 765.79742431640625 771.403076171875 778.28070068359375 783.59246826171875 776.884521484375 776.58746337890625 770.7581787109375 764.4556884765625 756.38018798828125 745.46527099609375 734.3345947265625 726.66455078125 722.96893310546875 719.58447265625 716.00115966796875 713.315185546875 710.27667236328125 706.825439453125 700.5771484375 695.32769775390625 688.93603515625 684.05078125 679.1646728515625 676.50994873046875 681.09893798828125 691.454345703125 701.61761474609375 709.93603515625 715.7330322265625 719.75054931640625 724.4306640625 730.015625 730.7926025390625 729.4010009765625 727.9613037109375 722.8009033203125 716.1380615234375 710.04595947265625 703.6085205078125 697.7349853515625 702.12530517578125 695.690673828125 688.89886474609375 678.69232177734375 666.65264892578125 645.62139892578125 631.44940185546875 616.689208984375 604.31658935546875 593.032958984375 586.35931396484375 586.472900390625 591.35504150390625 599.440185546875 608.71240234375 617.63812255859375 625.9625244140625 625.73907470703125 623.606201171875 612.31256103515625 612.47601318359375 615.38458251953125 619.80072021484375 627.89141845703125 640.5177001953125 653.33880615234375 661.65087890625 662.28265380859375 656.49786376953125 652.129638671875 653.09307861328125 660.0845947265625 686.28179931640625 700.47406005859375 713.99334716796875 721.29248046875 728.7362060546875 732.30029296875 732.50732421875 730.094482421875 727.1251220703125 725.61865234375 723.7711181640625 720.38702392578125 715.1075439453125 705.4017333984375      0      0      0      0      0
0      0      0 769.9732666015625 773.30035400390625 778.465087890625 785.1683349609375 791.9854736328125 798.734375 803.5225830078125 805.61962890625 802.85357666015625 797.17706298828125 789.82666015625 781.78485107421875 774.86688232421875 769.92999267578125 768.8597412109375 770.30316162109375 768.99615478515625 753.153564453125 748.21270751953125 749.12542724609375 751.0657958984375 746.66033935546875 739.8111572265625 733.22576904296875 729.59906005859375 729.15179443359375 730.03955078125 729.57891845703125 728.00164794921875 728.4949951171875 730.4820556640625 732.00372314453125 731.66387939453125 730.10162353515625 732.43255615234375 729.8912353515625 730.86041259765625 730.9925537109375 728.60101318359375 725.38836669921875 724.29461669921875 724.89825439453125 725.50616455078125 726.1446533203125 727.65740966796875 730.33380126953125 733.45111083984375 741.75677490234375 745.33062744140625 746.18695068359375 743.9251708984375 736.9776611328125 724.82012939453125 719.42999267578125 717.1539306640625 719.0020751953125 722.24560546875 723.3585205078125 722.249755859375 723.0831298828125 729.5228271484375 743.55908203125 750.9951171875 762.025634765625 769.1588134765625 769.3070068359375 768.5697021484375 771.18597412109375 774.317138671875 773.09564208984375 756.38604736328125 752.59210205078125 746.7633056640625 742.6392822265625 749.67889404296875 751.26025390625 747.177734375 742.26025390625 742.17645263671875 746.05865478515625 747.4715576171875 744.9825439453125 745.51055908203125 751.83795166015625 761.18994140625 770.4227294921875 776.884521484375 779.23193359375 765.37799072265625 761.5189208984375 755.405517578125 746.02069091796875 735.86822509765625 729.14337158203125 726.09393310546875 722.9820556640625 720.17144775390625 716.3109130859375 708.6951904296875 703.71282958984375 703.8221435546875 696.51513671875 688.98028564453125 683.4193115234375 679.1646728515625 676.50994873046875 676.998046875 682.92816162109375 689.1346435546875 695.6593017578125 700.78948974609375 704.12420654296875 708.118896484375 713.90814208984375 718.77197265625 721.43951416015625 722.6397705078125 722.20391845703125 720.9962158203125 719.78045654296875 716.9539794921875 710.5865478515625 702.12530517578125 695.690673828125 685.76708984375 673.81903076171875 659.4058837890625 645.0848388671875 620.189208984375 606.63104248046875 594.377685546875 584.99798583984375 581.64068603515625 584.653076171875 591.32135009765625 599.74334716796875 608.69622802734375 617.0361328125 623.009765625 625.73907470703125 623.606201171875 610.28662109375 602.58502197265625 604.774658203125 611.2174072265625 621.9822998046875 635.18115234375 646.45953369140625 650.666259765625 647.765625 643.63720703125 642.66204833984375 644.89996337890625 652.6302490234375 666.26226806640625 698.13677978515625 710.87139892578125 721.29248046875 728.7362060546875 720.94635009765625 720.5595703125 719.098388671875 717.30584716796875 715.081298828125 712.51556396484375 710.91119384765625 709.95147705078125 704.763427734375 694.7906494140625      0      0      0      0
0      0      0 769.9732666015625 770.35589599609375 776.7479248046875 783.76739501953125 790.82061767578125 799.2373046875 804.08428955078125 802.65362548828125 793.80419921875 786.7493896484375 779.662841796875 772.76318359375 766.65582275390625 762.72845458984375 762.079345703125 762.567138671875 760.051025390625 753.153564453125 748.21270751953125 743.45263671875 748.72308349609375 745.76605224609375 738.74298095703125 731.8302001953125 726.634765625 724.17840576171875 723.9425048828125 723.81292724609375 723.49298095703125 725.54864501953125 729.54412841796875 731.9678955078125 730.98333740234375 728.03753662109375 727.06768798828125 729.8912353515625 726.62066650390625 726.2364501953125 724.32379150390625 721.89666748046875 720.72003173828125 720.41357421875 719.784912109375 719.41552734375 719.9609375 721.408447265625 723.39892578125 726.04833984375 734.6297607421875 736.431396484375 736.44580078125 732.1507568359375 724.82012939453125 719.42999267578125 713.51397705078125 715.25701904296875 717.6199951171875 717.29168701171875 715.4381103515625 717.25201416015625 723.88507080078125 730.16497802734375 738.789794921875 747.65740966796875 754.487548828125 755.26702880859375 755.67047119140625 757.04541015625 758.80267333984375 758.63494873046875 756.38604736328125 752.59210205078125 736.86468505859375 733.97900390625 734.2462158203125 737.98419189453125 734.8055419921875 729.70751953125 727.990478515625 731.644287109375 733.23114013671875 730.8668212890625 731.1380615234375 736.39837646484375 746.80078125 759.50396728515625 768.7625732421875 771.73614501953125 769.2672119140625 761.5189208984375 751.5948486328125 747.826904296875 743.9605712890625 740.1287841796875 736.798583984375 733.79510498046875 732.3223876953125 729.9483642578125 722.69677734375 716.4774169921875 714.5281982421875 711.1981201171875 696.67059326171875 691.09869384765625 683.021728515625 675.86712646484375 676.998046875 682.92816162109375 676.53668212890625 679.58612060546875 682.9688720703125 685.9697265625 690.0439453125 695.79412841796875 701.616455078125 705.674072265625 712.98382568359375 718.47064208984375 723.10699462890625 726.22100830078125 724.10028076171875 715.29595947265625 704.6693115234375 695.3839111328125 685.76708984375 670.95343017578125 654.0963134765625 637.7738037109375 625.5264892578125 598.6939697265625 585.00054931640625 577.96246337890625 577.8319091796875 581.19378662109375 586.32440185546875 592.96624755859375 600.456787109375 608.6009521484375 615.0633544921875 618.0435791015625 616.39251708984375 610.28662109375 604.2889404296875 597.214599609375 604.398193359375 614.9859619140625 626.61541748046875 635.493408203125 636.9549560546875 632.47454833984375 629.89093017578125 632.1070556640625 637.26318359375 646.5257568359375 662.28887939453125 680.5157470703125 706.6778564453125 714.13641357421875 718.9114990234375 720.94635009765625 720.5595703125 704.32550048828125 703.277587890625 701.98883056640625 700.07855224609375 698.941162109375 699.95037841796875 699.41998291015625 691.55694580078125      0      0      0      0
0      0      0 765.87384033203125 770.35589599609375 776.7479248046875 780.1536865234375 787.88739013671875 797.26373291015625 802.79583740234375 800.20391845703125 793.61956787109375 778.266357421875 771.0565185546875 764.54541015625 758.89093017578125 755.49029541015625 755.18585205078125 755.51727294921875 752.50115966796875 745.397216796875 740.92132568359375 743.45263671875 741.099609375 744.16314697265625 734.479736328125 728.56561279296875 723.896240234375 721.367919921875 720.1993408203125 719.65631103515625 719.77734375 722.08746337890625 726.8970947265625 730.2996826171875 729.77032470703125 726.860595703125 725.60113525390625 726.05645751953125 726.62066650390625 726.2364501953125 719.25738525390625 717.54571533203125 716.45404052734375 715.3974609375 714.5015869140625 714.07623291015625 714.00262451171875 714.249755859375 714.5272216796875 715.23150634765625 717.81488037109375 723.4688720703125 725.4945068359375 723.9395751953125 719.66436767578125 715.50299072265625 713.51397705078125 715.25701904296875 710.9266357421875 709.59423828125 708.14117431640625 710.65850830078125 716.43902587890625 721.34661865234375 723.8380126953125 730.8043212890625 736.09295654296875 739.3623046875 741.6700439453125 743.09002685546875 743.72607421875 744.52728271484375 743.77093505859375 740.765380859375 736.86468505859375 733.97900390625 723.2606201171875 724.53955078125 719.89794921875 715.10760498046875 713.2470703125 716.03466796875 717.78057861328125 716.7354736328125 718.458984375 724.37164306640625 734.53265380859375 747.6824951171875 757.84149169921875 762.0926513671875 761.33245849609375 758.6868896484375 751.5948486328125 747.826904296875 748.02001953125 747.1751708984375 745.5216064453125 743.542236328125 742.8958740234375 742.61944580078125 739.246826171875 734.16455078125 728.99945068359375 723.02679443359375 715.66229248046875 702.65869140625 692.04534912109375 681.0257568359375 675.74853515625 675.15863037109375 676.53668212890625 667.6070556640625 668.392822265625 669.963134765625 673.1363525390625 679.36761474609375 687.131591796875 692.56414794921875 697.63775634765625 714.0308837890625 719.76446533203125 721.887939453125 718.9407958984375 710.5953369140625 701.81396484375 693.58367919921875 684.0068359375 670.95343017578125 654.0963134765625 638.22283935546875 627.177001953125 614.4244384765625 584.909912109375 577.5074462890625 575.9400634765625 577.1260986328125 579.90020751953125 584.010498046875 589.31494140625 596.982666015625 603.8839111328125 607.42535400390625 607.1939697265625 602.2657470703125 596.203369140625 594.2662353515625 604.398193359375 605.27716064453125 614.95428466796875 620.52569580078125 620.8087158203125 617.79937744140625 616.13568115234375 618.81640625 627.2098388671875 640.12554931640625 658.1290283203125 675.9197998046875 688.44390869140625 702.23565673828125 705.47235107421875 706.561279296875 705.63189697265625 704.32550048828125 703.277587890625 687.9970703125 687.2845458984375 687.29034423828125 689.8521728515625 690.931884765625 684.4127197265625      0      0      0      0
0      0      0 762.88690185546875 766.794189453125 772.92181396484375 780.1536865234375 787.88739013671875 793.4583740234375 800.36090087890625 798.91119384765625 791.26336669921875 773.1578369140625 765.7130126953125 759.49072265625 754.041748046875 749.8701171875 748.6715087890625 749.22467041015625 746.811767578125 740.54925537109375 735.96319580078125 736.7618408203125 741.099609375 744.16314697265625 733.68389892578125 726.7579345703125 723.1329345703125 719.830810546875 717.301025390625 716.57745361328125 717.02655029296875 719.07806396484375 723.50250244140625 727.30963134765625 726.919189453125 724.31658935546875 723.33416748046875 724.02984619140625 723.1868896484375 721.334716796875 719.25738525390625 717.54571533203125 712.2589111328125 710.19073486328125 709.0948486328125 708.73736572265625 708.16070556640625 707.60662841796875 707.18646240234375 706.7369384765625 707.4666748046875 709.58746337890625 713.971435546875 713.77313232421875 712.25726318359375 710.0809326171875 709.2625732421875 710.2578125 710.9266357421875 709.59423828125 701.7557373046875 704.324951171875 708.5771484375 711.00836181640625 712.8541259765625 715.7890625 721.42864990234375 725.43951416015625 729.2991943359375 730.95184326171875 730.51800537109375 729.2845458984375 727.5557861328125 726.3482666015625 725.58770751953125 724.07720947265625 723.2606201171875 724.53955078125 710.3443603515625 702.01812744140625 701.05865478515625 701.8223876953125 701.15594482421875 700.12890625 703.43212890625 711.29736328125 721.7047119140625 732.89508056640625 742.17022705078125 747.99468994140625 750.60064697265625 751.03363037109375 748.8424072265625 747.32904052734375 748.02001953125 747.1751708984375 746.20843505859375 747.69036865234375 748.1461181640625 748.10540771484375 746.35760498046875 743.7139892578125 739.45526123046875 733.3065185546875 726.062255859375 718.94085693359375 699.3548583984375 686.47869873046875 676.24774169921875 670.78155517578125 668.018310546875 667.6070556640625 668.392822265625 659.29290771484375 659.4129638671875 664.50030517578125 672.90740966796875 680.04571533203125 687.617431640625 698.453857421875 710.370361328125 709.08245849609375 706.45648193359375 700.84381103515625 693.890869140625 687.07806396484375 679.12921142578125 667.6014404296875 652.37701416015625 638.22283935546875 627.177001953125 617.61993408203125 603.01043701171875 580.27386474609375 575.78118896484375 575.19366455078125 576.67816162109375 578.2469482421875 580.273681640625 585.5440673828125 591.60223388671875 594.98583984375 595.34576416015625 591.8626708984375 587.00665283203125 585.52398681640625 588.82476806640625 605.27716064453125 614.95428466796875 603.3497314453125 604.75274658203125 604.469970703125 604.4482421875 608.3704833984375 618.9080810546875 634.5828857421875 652.22216796875 666.75616455078125 676.978271484375 684.218017578125 690.8974609375 691.87176513671875 691.08099365234375 689.7730712890625 688.6287841796875 687.9970703125 687.2845458984375 676.86602783203125 680.40142822265625 681.9197998046875 677.343017578125      0      0      0      0
0      0      0 760.852294921875 764.01611328125 769.2845458984375 776.487548828125 784.42584228515625 793.4583740234375 795.14501953125 794.596923828125 787.59716796875 777.9730224609375 760.4949951171875 755.433837890625 750.80572509765625 745.00152587890625 742.4195556640625 743.7093505859375 743.46673583984375 739.24310302734375 733.90203857421875 731.15899658203125 731.75469970703125 734.06280517578125 733.68389892578125 730.50103759765625 721.7958984375 717.936279296875 714.86309814453125 713.5885009765625 713.87469482421875 715.68109130859375 719.63360595703125 723.5093994140625 723.09228515625 720.49212646484375 719.60052490234375 720.3463134765625 720.29461669921875 717.35919189453125 716.12841796875 714.3677978515625 712.2589111328125 710.19073486328125 705.771484375 705.534912109375 703.7818603515625 701.95361328125 701.1837158203125 701.275390625 702.05963134765625 703.6998291015625 705.6058349609375 706.90594482421875 706.240966796875 705.04229736328125 704.45928955078125 704.755859375 704.67822265625 702.85406494140625 701.7557373046875 704.324951171875 698.9276123046875 699.82525634765625 701.1851806640625 704.9542236328125 709.7579345703125 714.3507080078125 718.88287353515625 718.47589111328125 714.4615478515625 710.26123046875 708.65655517578125 712.3568115234375 716.28521728515625 716.89300537109375 716.56011962890625 714.7821044921875 710.3443603515625 705.4576416015625 693.01092529296875 692.30181884765625 689.8524169921875 687.99591064453125 691.03521728515625 699.25341796875 709.6219482421875 719.24884033203125 728.12884521484375 735.3626708984375 741.1812744140625 744.06390380859375 741.8338623046875 738.9544677734375 740.343994140625 743.10015869140625 746.20843505859375 744.2086181640625 745.1221923828125 743.75848388671875 742.096435546875 741.85382080078125 739.7811279296875 734.530029296875 728.4927978515625 722.16546630859375 713.618408203125 691.40216064453125 681.39947509765625 673.603515625 668.1861572265625 664.90692138671875 661.733642578125 659.29290771484375 659.4129638671875 654.7523193359375 661.60888671875 669.4215087890625 678.68072509765625 690.6864013671875 700.35223388671875 697.15216064453125 693.39697265625 687.7274169921875 680.83697509765625 674.73785400390625 668.7738037109375 660.07513427734375 649.48956298828125 640.40374755859375 630.93377685546875 617.61993408203125 603.01043701171875 589.96295166015625 575.68017578125 575.0087890625 576.614990234375 576.6712646484375 574.81195068359375 575.66119384765625 580.03192138671875 583.66534423828125 583.69757080078125 580.7442626953125 577.541748046875 576.785400390625 579.52288818359375 591.5477294921875 599.0352783203125 603.3497314453125 604.75274658203125 590.860107421875 594.26910400390625 601.74005126953125 612.9847412109375 628.15948486328125 644.33172607421875 656.053466796875 663.583740234375 669.4254150390625 673.3819580078125 677.73565673828125 677.22857666015625 676.150146484375 674.35980224609375 673.268310546875 674.2989501953125 676.86602783203125 680.40142822265625 671.83380126953125 668.9708251953125      0      0      0      0
0      0      0 760.0316162109375 762.22247314453125 766.88970947265625 773.22930908203125 780.119873046875 788.21221923828125 795.14501953125 794.596923828125 780.76629638671875 772.35693359375 762.4141845703125 749.492431640625 745.07354736328125 738.86236572265625 736.28729248046875 738.69921875 740.3050537109375 738.58331298828125 734.13275146484375 728.500732421875 724.6409912109375 724.800048828125 726.17510986328125 726.0697021484375 724.58880615234375 717.936279296875 712.2557373046875 710.28973388671875 710.06005859375 711.71630859375 715.49560546875 718.91741943359375 718.51751708984375 716.56488037109375 715.71270751953125 715.322509765625 714.61492919921875 714.29425048828125 715.4862060546875 713.5159912109375 709.83294677734375 706.61956787109375 705.771484375 705.534912109375 701.77069091796875 699.11627197265625 697.276123046875 697.078369140625 698.31475830078125 700.13116455078125 701.3775634765625 702.13555908203125 701.86517333984375 700.94927978515625 700.43115234375 701.22003173828125 701.781982421875 699.81829833984375 697.55865478515625 697.38580322265625 698.9276123046875 699.82525634765625 691.3583984375 694.1884765625 696.60687255859375 702.1148681640625 704.90386962890625 702.8900146484375 697.78961181640625 694.15972900390625 695.10345458984375 701.9390869140625 709.47332763671875 713.66314697265625 713.84393310546875 708.79864501953125 701.84417724609375 696.67462158203125 694.046875 692.30181884765625 682.3458251953125 680.5552978515625 682.8897705078125 690.51690673828125 700.193115234375 709.4415283203125 719.34857177734375 728.44647216796875 735.20538330078125 736.6781005859375 732.8226318359375 727.97772216796875 726.81146240234375 733.28704833984375 739.97320556640625 744.2086181640625 745.1221923828125 733.39849853515625 731.155029296875 730.80474853515625 731.2418212890625 729.20880126953125 725.2601318359375 720.24957275390625 713.26904296875 705.60888671875 694.1571044921875 685.8282470703125 677.51824951171875 670.58245849609375 662.4447021484375 655.269287109375 652.2532958984375 654.7523193359375 661.60888671875 660.26495361328125 669.32635498046875 679.5335693359375 687.46575927734375 684.7479248046875 678.8896484375 671.90008544921875 664.83856201171875 659.4571533203125 655.40728759765625 649.715576171875 642.43206787109375 636.400634765625 628.29461669921875 615.8143310546875 602.0262451171875 589.96295166015625 580.7325439453125 574.48541259765625 576.05828857421875 575.59674072265625 571.70404052734375 568.861572265625 570.830078125 573.67498779296875 573.17315673828125 570.7442626953125 568.90093994140625 569.26495361328125 571.40771484375 574.2869873046875 582.3070068359375 585.8927001953125 588.70623779296875 590.860107421875 594.26910400390625 597.0135498046875 609.254150390625 621.3367919921875 634.675537109375 644.98114013671875 650.7689208984375 655.51055908203125 659.01531982421875 661.56219482421875 664.0721435546875 662.554443359375 659.32940673828125 658.61663818359375 662.43438720703125 667.109375 670.37896728515625 671.83380126953125 668.9708251953125      0      0      0      0
0      0      0 763.36383056640625 762.8316650390625 765.47509765625 770.844482421875 776.8284912109375 782.7152099609375 787.435546875 786.63330078125 780.76629638671875 772.35693359375 755.91302490234375 748.22442626953125 739.729736328125 734.42266845703125 732.34515380859375 734.1468505859375 735.35162353515625 734.8544921875 732.89306640625 728.4571533203125 723.39007568359375 720.7047119140625 719.98883056640625 719.45654296875 718.78643798828125 717.54791259765625 712.2557373046875 710.28973388671875 706.6063232421875 707.49090576171875 710.50457763671875 712.7218017578125 712.72503662109375 712.32000732421875 711.82843017578125 711.03717041015625 710.35382080078125 710.77264404296875 712.67401123046875 710.56787109375 706.2808837890625 703.60107421875 703.802734375 703.7774658203125 701.77069091796875 699.11627197265625 694.4476318359375 693.4462890625 694.36859130859375 696.35479736328125 697.801513671875 698.41082763671875 698.5704345703125 698.28375244140625 698.03240966796875 698.9630126953125 700.33331298828125 698.73095703125 694.37664794921875 691.01190185546875 690.22650146484375 690.42901611328125 691.3583984375 694.1884765625 687.2916259765625 687.25360107421875 688.8328857421875 688.037841796875 685.2772216796875 684.545166015625 688.48272705078125 695.054931640625 703.12371826171875 709.71771240234375 709.990234375 704.518798828125 698.0035400390625 692.71600341796875 689.430908203125 687.144287109375 682.3458251953125 673.02557373046875 676.16204833984375 683.8426513671875 693.48333740234375 702.637451171875 712.5902099609375 721.99847412109375 727.4276123046875 727.3189697265625 722.88262939453125 716.39959716796875 712.171142578125 724.43231201171875 731.78448486328125 735.2745361328125 735.27825927734375 733.39849853515625 731.155029296875 718.3515625 721.44744873046875 723.62109375 722.31982421875 718.49554443359375 713.626220703125 710.11669921875 709.48162841796875 699.7113037109375 690.089599609375 679.9312744140625 667.75030517578125 655.05621337890625 648.035400390625 648.10150146484375 652.9425048828125 660.26495361328125 669.32635498046875 666.9166259765625 674.42742919921875 676.3402099609375 664.41448974609375 657.616455078125 650.86322021484375 645.92315673828125 642.676025390625 638.2427978515625 632.15789794921875 627.31512451171875 621.69775390625 611.92462158203125 599.75537109375 588.7559814453125 579.883056640625 574.85260009765625 576.05828857421875 573.4547119140625 570.65338134765625 567.1197509765625 566.61968994140625 568.1993408203125 567.0838623046875 564.39642333984375 562.93621826171875 563.8240966796875 565.18560791015625 565.84478759765625 567.0914306640625 571.72821044921875 574.31219482421875 577.8431396484375 585.09136962890625 597.0135498046875 609.254150390625 613.490966796875 623.82598876953125 633.6533203125 639.45233154296875 642.917236328125 645.67657470703125 648.29583740234375 650.57550048828125 648.6151123046875 645.3138427734375 646.18365478515625 651.48297119140625 656.84503173828125 660.31512451171875 661.107421875 658.00189208984375      0      0      0      0
0      0      0 770.14276123046875 767.0416259765625 767.96160888671875 771.9716796875 776.07830810546875 779.39337158203125 781.00982666015625 778.9041748046875 773.53619384765625 765.615478515625 755.91302490234375 748.22442626953125 744.5291748046875 736.1109619140625 732.70855712890625 730.93017578125 729.15631103515625 728.35504150390625 728.5665283203125 727.39453125 723.64727783203125 718.65380859375 715.48870849609375 714.3302001953125 713.3114013671875 712.413330078125 711.261474609375 707.55975341796875 706.6063232421875 707.49090576171875 705.8006591796875 706.50982666015625 707.5360107421875 708.8443603515625 708.87347412109375 707.98394775390625 707.017333984375 707.26580810546875 709.2022705078125 709.29412841796875 701.89324951171875 700.11077880859375 700.469970703125 700.33331298828125 698.83660888671875 696.53790283203125 694.4476318359375 693.4462890625 690.20025634765625 691.5836181640625 693.42626953125 694.5201416015625 694.667724609375 695.14453125 694.97845458984375 695.44805908203125 697.23455810546875 697.1300048828125 693.51324462890625 688.75048828125 685.70330810546875 685.040771484375 685.73358154296875 686.88873291015625 687.2916259765625 679.67279052734375 678.14605712890625 676.9085693359375 675.72125244140625 677.623779296875 683.947265625 690.114013671875 695.88555908203125 700.76422119140625 701.3551025390625 697.8409423828125 693.274658203125 689.4324951171875 686.12530517578125 682.31939697265625 678.1990966796875 673.02557373046875 676.16204833984375 677.48968505859375 685.6253662109375 692.82342529296875 700.3919677734375 708.0784912109375 712.538818359375 713.00958251953125 710.0528564453125 704.73834228515625 701.891357421875 705.7091064453125 718.95391845703125 720.67034912109375 720.23681640625 718.9012451171875 717.74163818359375 718.3515625 721.44744873046875 716.4853515625 716.70306396484375 713.7135009765625 711.0941162109375 711.7291259765625 714.62677001953125 713.669921875 699.00347900390625 688.614990234375 673.92047119140625 657.09710693359375 646.5687255859375 643.803955078125 646.38751220703125 651.90386962890625 658.40966796875 666.9166259765625 674.42742919921875 665.87744140625 661.3594970703125 647.12353515625 640.4573974609375 635.1417236328125 630.99652099609375 626.33935546875 621.36981201171875 618.2567138671875 615.74468994140625 610.2623291015625 601.95562744140625 592.43328857421875 583.3853759765625 576.9464111328125 574.2877197265625 573.4547119140625 570.65338134765625 569.791015625 568.39202880859375 568.732421875 566.549072265625 562.64910888671875 560.6094970703125 560.89801025390625 560.94952392578125 559.63055419921875 558.95697021484375 559.71197509765625 563.892333984375 568.0633544921875 576.78863525390625 590.32745361328125 603.57177734375 613.490966796875 623.82598876953125 619.93804931640625 626.7412109375 629.89031982421875 632.4290771484375 635.34014892578125 637.35821533203125 637.0640869140625 631.5531005859375 634.21746826171875 639.68182373046875 644.56622314453125 648.20587158203125 648.2867431640625 645.0968017578125      0      0      0      0
0      0      0      0 774.30511474609375 773.95404052734375 775.2197265625 776.92437744140625 777.82000732421875 776.17279052734375 772.70269775390625 767.52667236328125 760.04351806640625 752.05194091796875 746.88818359375 744.5291748046875 741.0948486328125 736.23565673828125 730.423828125 724.96783447265625 722.17401123046875 722.6314697265625 722.72698974609375 719.8858642578125 715.25634765625 712.0240478515625 710.749755859375 709.58905029296875 708.12548828125 706.95306396484375 705.8878173828125 703.72393798828125 704.58642578125 705.8006591796875 706.50982666015625 703.73663330078125 705.81939697265625 706.33258056640625 704.98089599609375 703.16571044921875 703.25604248046875 705.6209716796875 706.2786865234375 703.56915283203125 697.45770263671875 696.5028076171875 696.11676025390625 694.7860107421875 693.38232421875 691.990478515625 690.3265380859375 690.20025634765625 691.5836181640625 688.6929931640625 690.15264892578125 690.61114501953125 691.13934326171875 691.6177978515625 691.0650634765625 692.604248046875 694.9423828125 694.07403564453125 689.14093017578125 684.23516845703125 682.49407958984375 682.47027587890625 682.2423095703125 681.35174560546875 679.67279052734375 678.14605712890625 671.51885986328125 670.50067138671875 672.9224853515625 678.6400146484375 684.223388671875 688.03387451171875 690.08624267578125 689.51336669921875 687.0367431640625 684.8822021484375 683.34271240234375 681.04266357421875 677.467529296875 672.2659912109375 667.438232421875 670.13543701171875 677.48968505859375 685.6253662109375 678.55059814453125 681.9971923828125 686.86248779296875 691.3897705078125 693.91436767578125 693.69677734375 691.17974853515625 690.2296142578125 694.49346923828125 700.86590576171875 706.61810302734375 705.91204833984375 704.3955078125 705.21826171875 708.49853515625 712.83099365234375 716.4853515625 716.70306396484375 703.97125244140625 704.19085693359375 707.99981689453125 712.95819091796875 713.58074951171875 709.268310546875 693.11968994140625 678.287109375 661.3311767578125 648.50628662109375 642.88763427734375 642.89666748046875 644.60003662109375 648.41302490234375 656.04010009765625 663.733154296875 665.87744140625 661.3594970703125 648.000244140625 631.60321044921875 625.70556640625 621.29278564453125 617.7960205078125 614.19464111328125 611.97247314453125 611.52764892578125 610.39605712890625 606.23480224609375 598.49676513671875 588.862060546875 580.22210693359375 575.17633056640625 573.56793212890625 572.13104248046875 569.791015625 568.39202880859375 572.3165283203125 569.126953125 564.0791015625 561.0465087890625 560.18817138671875 559.11566162109375 557.30328369140625 556.020751953125 555.40435791015625 555.6728515625 561.34747314453125 569.0013427734375 580.92645263671875 593.1517333984375 602.11541748046875 610.54534912109375 619.93804931640625 612.78765869140625 617.2142333984375 618.12493896484375 619.76800537109375 622.64910888671875 622.22149658203125 618.9339599609375 620.57958984375 626.74981689453125 632.08544921875 635.0145263671875 634.9423828125 632.97314453125      0      0      0      0
0      0      0      0 783.47467041015625 780.69390869140625 778.55810546875 777.7347412109375 775.572021484375 771.39068603515625 767.6087646484375 763.4923095703125 757.918212890625 752.8892822265625 750.82269287109375 750.38067626953125 747.3529052734375 741.9505615234375 730.423828125 725.64306640625 720.87908935546875 719.01025390625 717.04925537109375 714.41876220703125 711.51025390625 708.473876953125 706.81756591796875 705.73101806640625 704.4581298828125 703.23858642578125 702.0218505859375 700.802978515625 702.0791015625 702.23968505859375 702.278076171875 703.73663330078125 705.81939697265625 702.69635009765625 702.0579833984375 700.46978759765625 699.85809326171875 701.28204345703125 701.736328125 699.8529052734375 697.29119873046875 693.29351806640625 692.799560546875 691.9951171875 690.95953369140625 689.859619140625 687.76470947265625 686.1832275390625 686.7713623046875 688.6929931640625 687.039794921875 687.220458984375 687.28448486328125 687.81005859375 687.10028076171875 688.40472412109375 691.79962158203125 692.76275634765625 688.68536376953125 682.65643310546875 679.6099853515625 679.2015380859375 678.50726318359375 677.03948974609375 674.9259033203125 673.04913330078125 671.51885986328125 670.4993896484375 670.03411865234375 673.267578125 676.8438720703125 678.7841796875 678.07391357421875 675.32171630859375 673.28857421875 673.119384765625 673.251708984375 672.90692138671875 671.2127685546875 666.46575927734375 662.0465087890625 664.1697998046875 670.4554443359375 675.59991455078125 678.55059814453125 681.9971923828125 668.1339111328125 672.20953369140625 676.49285888671875 678.6724853515625 678.18524169921875 678.9591064453125 684.600830078125 690.982666015625 694.84344482421875 694.615234375 692.48431396484375 693.2449951171875 696.9698486328125 702.27691650390625 706.2005615234375 706.0240478515625 703.97125244140625 704.19085693359375 701.2481689453125 705.8126220703125 706.9150390625 705.3121337890625 693.392333984375 680.93798828125 666.61151123046875 653.58251953125 646.59478759765625 643.21429443359375 640.302978515625 640.6732177734375 646.455078125 653.7744140625 656.72601318359375 654.6160888671875 648.000244140625 639.10321044921875 618.8817138671875 616.55670166015625 614.752197265625 611.70513916015625 608.5244140625 607.49810791015625 608.022705078125 606.3193359375 599.80938720703125 590.0545654296875 581.64306640625 577.75640869140625 577.14508056640625 576.98492431640625 573.93927001953125 572.9930419921875 572.3165283203125 574.707275390625 569.81011962890625 565.69561767578125 563.0880126953125 560.71337890625 558.22918701171875 556.59478759765625 554.92108154296875 553.2601318359375 553.82965087890625 562.90618896484375 572.63409423828125 582.01007080078125 588.94342041015625 595.73321533203125 604.307861328125 612.78765869140625 617.2142333984375 604.46551513671875 605.06585693359375 608.20343017578125 607.43927001953125 604.8023681640625 604.51214599609375 614.68792724609375 621.12823486328125 624.1826171875 624.18994140625 623.84283447265625      0      0      0      0
0      0      0      0 792.523193359375 788.7139892578125 784.218505859375 780.60748291015625 776.484619140625 771.838134765625 768.79803466796875 765.89617919921875 762.239501953125 759.1807861328125 757.082275390625 755.04071044921875 751.19677734375 745.4144287109375 738.759765625 725.64306640625 720.87908935546875 721.896484375 717.17657470703125 713.0133056640625 709.5960693359375 705.8658447265625 702.876953125 701.3802490234375 700.93377685546875 700.0633544921875 698.39923095703125 696.83416748046875 697.69329833984375 698.38397216796875 698.78533935546875 699.7178955078125 701.49853515625 702.69635009765625 702.0579833984375 697.57415771484375 696.92193603515625 697.24774169921875 696.5750732421875 694.1005859375 691.64056396484375 690.33538818359375 689.4033203125 689.09820556640625 688.263427734375 686.882568359375 684.6824951171875 682.47979736328125 682.82403564453125 685.32147216796875 687.039794921875 687.220458984375 683.469482421875 683.99884033203125 684.09954833984375 684.7696533203125 687.978271484375 690.39947509765625 687.81439208984375 681.4971923828125 677.21209716796875 675.61309814453125 674.03070068359375 671.932861328125 670.01129150390625 668.82989501953125 668.087890625 667.53009033203125 668.18023681640625 673.267578125 671.8797607421875 671.28778076171875 667.91748046875 663.5736083984375 661.55029296875 661.82421875 662.652099609375 663.71795654296875 663.55810546875 660.3328857421875 657.07598876953125 656.4158935546875 664.06103515625 666.82305908203125 666.427001953125 666.26416015625 668.1339111328125 672.20953369140625 663.78265380859375 667.183349609375 668.4771728515625 670.40533447265625 676.16217041015625 681.42266845703125 684.0701904296875 684.36932373046875 680.894287109375 681.4854736328125 684.78082275390625 690.12457275390625 694.20965576171875 694.0950927734375 693.08026123046875 695.72247314453125 701.2481689453125 705.8126220703125 695.52838134765625 696.69171142578125 696.65203857421875 684.2281494140625 673.9554443359375 663.54827880859375 655.755859375 648.8931884765625 641.7913818359375 637.329345703125 638.50054931640625 642.966064453125 646.0565185546875 645.58453369140625 639.88092041015625 630.8035888671875 623.3125 616.55670166015625 616.4808349609375 613.79425048828125 608.51470947265625 603.82720947265625 602.770263671875 602.1968994140625 598.14678955078125 591.34637451171875 585.95526123046875 584.08209228515625 584.48822021484375 584.3804931640625 580.25445556640625 579.2518310546875 577.7386474609375 574.707275390625 569.81011962890625 576.57525634765625 570.6158447265625 566.269287109375 562.4720458984375 559.452392578125 557.321044921875 554.36785888671875 551.82904052734375 551.81427001953125 564.6070556640625 571.74578857421875 577.32403564453125 583.850830078125 592.614013671875 601.9072265625 606.02996826171875 604.46551513671875 605.06585693359375 594.96282958984375 594.96539306640625 593.97137451171875 594.61419677734375 605.6522216796875 613.18560791015625 618.018310546875 619.7161865234375 621.0057373046875      0      0      0      0
0      0      0      0 792.523193359375 795.09228515625 790.80865478515625 787.38555908203125 784.0015869140625 780.32525634765625 777.63800048828125 775.07000732421875 772.39190673828125 768.88641357421875 763.92999267578125 757.82525634765625 752.2906494140625 747.58319091796875 742.12506103515625 736.83575439453125 726.38677978515625 721.896484375 717.17657470703125 719.5760498046875 713.401123046875 707.747802734375 702.5712890625 700.43670654296875 700.15704345703125 698.5230712890625 695.90802001953125 693.87396240234375 692.76470947265625 694.31060791015625 695.57586669921875 696.04168701171875 696.46875 697.4388427734375 698.12298583984375 697.57415771484375 693.05926513671875 693.776123046875 693.11846923828125 689.8973388671875 686.429443359375 685.46502685546875 686.140380859375 685.990478515625 685.09765625 684.13336181640625 682.09735107421875 679.564208984375 679.4920654296875 682.14544677734375 684.14910888671875 683.9730224609375 683.469482421875 683.99884033203125 680.79498291015625 680.7864990234375 685.6744384765625 689.37115478515625 687.92193603515625 681.92486572265625 676.39263916015625 672.79107666015625 669.865966796875 667.62933349609375 666.30523681640625 665.1544189453125 663.9332275390625 663.45574951171875 665.15667724609375 667.92681884765625 671.8797607421875 671.28778076171875 664.0277099609375 658.5966796875 655.159423828125 654.12060546875 654.5208740234375 655.70587158203125 655.98516845703125 654.619140625 653.2713623046875 653.10504150390625 654.6466064453125 658.4554443359375 657.0782470703125 655.0750732421875 655.6009521484375 659.3909912109375 663.78265380859375 667.183349609375 659.9974365234375 663.004638671875 667.88787841796875 670.9635009765625 671.8609619140625 671.98370361328125 671.17352294921875 672.16278076171875 674.9263916015625 678.63153076171875 681.33868408203125 681.20318603515625 680.812744140625 684.44146728515625 690.43505859375 694.21337890625 695.52838134765625 696.69171142578125 686.784912109375 685.82867431640625 678.35516357421875 672.49072265625 665.1151123046875 656.18524169921875 646.43463134765625 638.7686767578125 634.90777587890625 634.66754150390625 635.40802001953125 634.1893310546875 629.4287109375 622.7344970703125 618.0411376953125 616.39971923828125 616.4808349609375 620.18560791015625 611.34088134765625 602.4281005859375 598.71246337890625 598.710693359375 598.7322998046875 597.6964111328125 595.817138671875 594.09893798828125 593.6524658203125 593.61602783203125 592.32196044921875 590.55584716796875 588.7105712890625 586.37371826171875 582.4298095703125 576.57525634765625 570.6158447265625 577.91436767578125 571.36865234375 565.97845458984375 562.3441162109375 557.0771484375 551.200927734375 548.37994384765625 550.74542236328125 563.0848388671875 568.3228759765625 575.10198974609375 583.76275634765625 591.6265869140625 594.57122802734375 592.9710693359375 592.83636474609375 594.96282958984375 594.96539306640625 588.5086669921875 591.49072265625 597.0797119140625 613.623779296875 620.65789794921875 623.57806396484375 625.9619140625      0      0      0      0
0      0      0      0 791.89697265625 795.09228515625 794.22711181640625 792.70062255859375 791.40167236328125 788.62628173828125 786.27215576171875 784.6650390625 782.5452880859375 777.0814208984375 769.0206298828125 761.197021484375 756.0601806640625 752.9378662109375 748.8931884765625 745.19403076171875 741.84869384765625 731.3157958984375 726.06640625 719.5760498046875 722.65643310546875 715.1435546875 708.3780517578125 704.69989013671875 702.297607421875 698.73736572265625 694.9951171875 692.81536865234375 690.9617919921875 689.79827880859375 691.87646484375 692.42034912109375 692.403076171875 692.76397705078125 693.09588623046875 692.83404541015625 693.05926513671875 693.776123046875 689.96771240234375 686.522705078125 682.376220703125 681.26544189453125 682.24468994140625 682.8946533203125 681.6588134765625 681.70721435546875 680.339111328125 677.41070556640625 676.471435546875 678.4300537109375 680.52099609375 680.5140380859375 679.5858154296875 679.89471435546875 680.79498291015625 680.7864990234375 680.2427978515625 690.074951171875 690.29010009765625 685.95159912109375 681.04486083984375 676.28173828125 671.5145263671875 667.65692138671875 665.170166015625 662.78509521484375 660.3416748046875 659.28643798828125 661.3277587890625 665.00921630859375 667.52801513671875 668.4302978515625 664.0277099609375 658.5966796875 654.23675537109375 651.18621826171875 650.1654052734375 650.47637939453125 649.96661376953125 649.29052734375 649.54168701171875 649.53851318359375 649.0228271484375 649.1715087890625 648.237060546875 646.8262939453125 647.9608154296875 651.490966796875 655.1343994140625 657.955322265625 659.9974365234375 663.004638671875 661.90521240234375 662.52386474609375 662.39447021484375 662.96728515625 663.3304443359375 663.64093017578125 667.49658203125 669.83367919921875 671.22943115234375 671.31317138671875 670.87445068359375 673.1993408203125 677.90997314453125 681.08551025390625 683.0223388671875 685.24591064453125 686.784912109375 675.39129638671875 675.00006103515625 673.36114501953125 668.3577880859375 660.8868408203125 652.29815673828125 643.63897705078125 637.10595703125 633.366943359375 629.60205078125 624.90106201171875 621.47369384765625 619.85791015625 619.8890380859375 621.5093994140625 623.18975830078125 620.18560791015625 611.34088134765625 600.6805419921875 595.6658935546875 596.78546142578125 600.93316650390625 605.09283447265625 606.28857421875 605.468505859375 605.1727294921875 605.1336669921875 604.8135986328125 605.1839599609375 603.8453369140625 601.40216064453125 597.10284423828125 590.19317626953125 583.49395751953125 577.91436767578125 571.36865234375 573.52178955078125 566.65496826171875 558.1890869140625 551.36724853515625 548.26324462890625 548.2943115234375 551.8192138671875 560.97283935546875 566.8548583984375 573.703857421875 579.06591796875 581.845703125 581.54510498046875 580.94635009765625 583.4757080078125 586.54681396484375 588.5086669921875 591.49072265625 606.30316162109375 614.76025390625 632.94952392578125 636.37322998046875 638.7818603515625      0      0      0      0
0      0      0      0 782.89361572265625 789.088134765625 792.21185302734375 792.7032470703125 791.40167236328125 793.27093505859375 792.26995849609375 792.0452880859375 790.11297607421875 783.4989013671875 774.44219970703125 767.62554931640625 763.83197021484375 761.2816162109375 758.45111083984375 755.80096435546875 752.599853515625 747.12811279296875 736.24212646484375 729.60113525390625 722.65643310546875 715.1435546875 719.7337646484375 713.64508056640625 707.509521484375 701.8785400390625 697.96014404296875 695.14788818359375 692.046875 689.07672119140625 687.6876220703125 688.7265625 688.99212646484375 689.58929443359375 689.33917236328125 688.8819580078125 689.51092529296875 690.3818359375 689.96771240234375 686.522705078125 679.48077392578125 677.9246826171875 677.57366943359375 677.14508056640625 676.845947265625 678.4080810546875 677.7840576171875 674.870361328125 672.92193603515625 674.0760498046875 676.5050048828125 676.974853515625 675.97503662109375 676.5560302734375 678.09613037109375 678.67633056640625 680.2427978515625 685.01885986328125 692.0400390625 691.94390869140625 689.643798828125 685.10797119140625 679.23431396484375 672.981201171875 667.728271484375 663.09869384765625 658.9664306640625 656.01422119140625 655.78668212890625 658.12353515625 660.54254150390625 663.02313232421875 662.95477294921875 658.805908203125 654.23675537109375 651.18621826171875 648.04766845703125 646.52630615234375 645.09063720703125 644.83270263671875 645.22613525390625 644.46807861328125 642.95989990234375 642.03765869140625 641.80377197265625 643.343505859375 644.642333984375 646.50762939453125 648.737060546875 650.68951416015625 652.9776611328125 657.68994140625 661.90521240234375 662.52386474609375 655.62396240234375 655.898681640625 656.30712890625 656.94586181640625 659.167724609375 665.1865234375 665.69293212890625 665.2509765625 663.44610595703125 662.85614013671875 665.58489990234375 668.44158935546875 670.552001953125 673.11041259765625 675.0025634765625 675.39129638671875 675.00006103515625 667.30523681640625 665.42254638671875 661.37628173828125 656.07855224609375 649.06060791015625 643.1458740234375 639.50054931640625 634.56146240234375 629.87261962890625 629.3035888671875 630.35882568359375 631.67315673828125 633.5716552734375 633.814208984375 632.13470458984375 612.50616455078125 600.6805419921875 595.6658935546875 595.30291748046875 600.8555908203125 606.92095947265625 611.15179443359375 613.39886474609375 614.47259521484375 614.02880859375 613.58538818359375 614.88427734375 615.865234375 612.4727783203125 607.68408203125 601.68377685546875 596.357421875 589.66552734375 580.8409423828125 573.52178955078125 566.65496826171875 559.36883544921875 551.45123291015625 548.285888671875 547.35906982421875 548.30096435546875 550.91497802734375 558.5440673828125 563.177001953125 567.25079345703125 569.82403564453125 570.24273681640625 571.61761474609375 577.21136474609375 584.29913330078125 590.5799560546875 597.905517578125 606.30316162109375 614.76025390625 640.62237548828125 652.7109375 653.55914306640625      0      0      0      0
0      0      0      0 768.4603271484375 777.653076171875 784.0477294921875 788.96923828125 793.2742919921875 793.27093505859375 797.68206787109375 797.6015625 795.8140869140625 790.545654296875 783.51458740234375 778.13330078125 774.87139892578125 773.5318603515625 772.33233642578125 769.31292724609375 763.73236083984375 756.004150390625 742.5218505859375 737.23431396484375 732.36187744140625 726.294921875 719.7337646484375 713.64508056640625 716.857177734375 711.15875244140625 707.54852294921875 703.42926025390625 698.43194580078125 693.66162109375 689.6357421875 687.34063720703125 685.6204833984375 685.95062255859375 685.9884033203125 685.87261962890625 686.29315185546875 686.90533447265625 686.22589111328125 683.0203857421875 679.48077392578125 677.9246826171875 674.132568359375 672.801025390625 671.84832763671875 673.67584228515625 673.626953125 671.0853271484375 669.14703369140625 669.906494140625 672.1859130859375 673.369140625 673.20989990234375 674.0093994140625 675.10113525390625 675.88250732421875 678.154052734375 683.02752685546875 688.9288330078125 691.94390869140625 690.73388671875 689.34686279296875 685.5643310546875 679.0484619140625 671.571044921875 664.654052734375 658.6090087890625 653.407958984375 650.015380859375 650.40911865234375 652.369873046875 654.16888427734375 657.22247314453125 659.49005126953125 655.6627197265625 650.854248046875 648.04766845703125 646.52630615234375 640.9830322265625 641.1016845703125 641.02569580078125 639.729736328125 638.098388671875 636.775146484375 636.649658203125 638.88836669921875 642.35986328125 642.12725830078125 643.25653076171875 646.10064697265625 649.79913330078125 654.45660400390625 657.43768310546875 656.63665771484375 655.62396240234375 647.5450439453125 648.409912109375 649.9326171875 653.16943359375 657.6846923828125 660.8485107421875 658.60357666015625 655.255126953125 652.864501953125 654.07672119140625 656.85797119140625 658.6563720703125 660.8824462890625 663.43890380859375 665.1834716796875 666.1632080078125 667.30523681640625 667.704833984375 656.46630859375 654.55108642578125 651.398681640625 649.1549072265625 649.0086669921875 648.3333740234375 647.8441162109375 647.6683349609375 645.81341552734375 643.4295654296875 641.650390625 638.6070556640625 632.24151611328125 622.37823486328125 598.03106689453125 593.487548828125 595.30291748046875 600.8555908203125 602.81671142578125 607.89569091796875 611.62200927734375 613.18878173828125 612.392333984375 611.60595703125 612.9813232421875 614.91619873046875 616.186767578125 611.36810302734375 606.9810791015625 603.0721435546875 597.10028076171875 588.95989990234375 580.4605712890625 570.430908203125 559.36883544921875 551.45123291015625 547.93695068359375 546.49200439453125 545.63623046875 546.4969482421875 549.2244873046875 555.4508056640625 558.8802490234375 561.9541015625 564.4364013671875 569.4241943359375 578.00689697265625 587.4749755859375 597.9959716796875 609.50628662109375 620.00439453125 629.959228515625 640.62237548828125 649.012451171875 661.14459228515625      0      0      0      0
0      0      0      0 754.156982421875 764.69189453125 773.6502685546875 782.02972412109375 789.59796142578125 794.5128173828125 797.68206787109375 797.6015625 799.06268310546875 796.928466796875 794.21295166015625 791.7716064453125 789.47454833984375 788.51739501953125 787.39093017578125 783.35601806640625 775.859375 765.8848876953125 756.474365234375 744.02313232421875 740.86529541015625 737.3035888671875 732.191162109375 724.9984130859375 716.857177734375 711.15875244140625 718.36456298828125 712.17578125 706.150634765625 701.132568359375 695.771240234375 691.138671875 687.87725830078125 683.20660400390625 682.276611328125 682.08221435546875 682.24346923828125 682.72503662109375 682.18670654296875 680.17498779296875 677.86962890625 675.7857666015625 674.132568359375 672.801025390625 668.53118896484375 667.57958984375 669.10430908203125 668.00152587890625 667.24774169921875 667.8311767578125 669.37371826171875 670.79180908203125 671.2783203125 671.52294921875 671.81585693359375 672.69720458984375 675.06573486328125 678.4925537109375 682.62396240234375 686.67462158203125 690.73388671875 689.34686279296875 683.62359619140625 679.8511962890625 673.71295166015625 666.89447021484375 659.7916259765625 651.91278076171875 646.0325927734375 645.299560546875 646.42462158203125 647.59661865234375 650.66925048828125 658.53936767578125 656.07861328125 650.0177001953125 645.77880859375 642.826416015625 640.9830322265625 641.1016845703125 636.83843994140625 635.8800048828125 634.48333740234375 633.14324951171875 633.5301513671875 635.91021728515625 638.1263427734375 637.1961669921875 638.68572998046875 642.57562255859375 646.8555908203125 649.5765380859375 649.9173583984375 648.2828369140625 647.15557861328125 647.5450439453125 648.409912109375 643.99652099609375 646.7479248046875 650.8985595703125 653.71551513671875 650.920654296875 647.50933837890625 644.4931640625 644.032470703125 645.6685791015625 646.53558349609375 647.44873046875 650.3416748046875 653.38177490234375 655.442138671875 657.03118896484375 657.888671875 657.5594482421875 654.55108642578125 648.02764892578125 649.6590576171875 652.72601318359375 655.531982421875 657.55108642578125 657.3260498046875 653.68536376953125 647.93115234375 641.882568359375 634.563232421875 624.72137451171875 613.5438232421875 594.970947265625 591.94049072265625 593.465576171875 597.6907958984375 602.81671142578125 607.89569091796875 600.6502685546875 601.58148193359375 601.37030029296875 600.66925048828125 601.57720947265625 604.63934326171875 608.12249755859375 609.2996826171875 604.32379150390625 602.92236328125 599.562744140625 593.11334228515625 584.97808837890625 574.2293701171875 561.92144775390625 552.33404541015625 547.93695068359375 546.49200439453125 543.976318359375 544.16552734375 547.0484619140625 553.47955322265625 558.33587646484375 564.23712158203125 569.96136474609375 577.4671630859375 586.06671142578125 594.750732421875 605.27496337890625 617.32879638671875 628.62860107421875 639.64703369140625 651.08709716796875 659.07305908203125 661.6990966796875      0      0      0      0
0      0      0      0 743.80706787109375 753.3634033203125 763.37762451171875 774.02301025390625 784.58026123046875 791.8463134765625 795.6865234375 799.29296875 799.06268310546875 796.928466796875 803.17633056640625 803.18585205078125 800.8172607421875 798.36810302734375 796.60003662109375 793.016845703125 785.36865234375 775.71527099609375 767.41876220703125 760.60009765625 751.05572509765625 746.9112548828125 742.36212158203125 735.6873779296875 728.2525634765625 723.278564453125 718.36456298828125 712.17578125 712.7513427734375 708.28131103515625 704.00469970703125 699.98095703125 695.59210205078125 690.20928955078125 681.4627685546875 679.3603515625 678.7132568359375 678.85906982421875 678.4539794921875 677.227783203125 675.337646484375 673.24822998046875 671.76287841796875 670.5029296875 668.53118896484375 667.57958984375 665.63897705078125 666.3265380859375 666.44378662109375 666.67364501953125 667.61175537109375 668.55780029296875 668.60235595703125 668.383544921875 668.76129150390625 670.01458740234375 672.037353515625 673.3480224609375 674.11810302734375 675.78533935546875 678.60076904296875 683.85162353515625 683.62359619140625 679.8511962890625 672.34075927734375 667.687255859375 659.85137939453125 649.61236572265625 642.4053955078125 640.642333984375 641.59283447265625 643.20379638671875 646.08740234375 651.42767333984375 654.93316650390625 648.8798828125 643.740478515625 640.66156005859375 638.773681640625 637.7265625 636.83843994140625 631.61920166015625 630.6812744140625 629.95263671875 630.85455322265625 632.72979736328125 633.2530517578125 632.66937255859375 633.92877197265625 637.236083984375 640.341796875 642.0584716796875 640.80181884765625 638.597900390625 638.50372314453125 639.92901611328125 641.872802734375 643.99652099609375 646.7479248046875 642.1136474609375 644.1358642578125 642.80499267578125 640.6876220703125 637.68756103515625 635.4664306640625 635.14337158203125 634.7462158203125 634.603515625 636.57415771484375 639.4130859375 642.23388671875 644.45135498046875 645.66485595703125 646.14324951171875 646.80975341796875 648.02764892578125 649.6590576171875 648.99847412109375 652.88482666015625 656.060546875 657.0797119140625 654.44097900390625 648.04937744140625 639.402587890625 629.6326904296875 618.3865966796875 607.05596923828125 598.26434326171875 590.70806884765625 590.68756103515625 592.79345703125 595.84881591796875 598.59100341796875 600.6502685546875 601.58148193359375 588.88262939453125 589.07244873046875 589.986572265625 593.18804931640625 596.7427978515625 598.57855224609375 597.93695068359375 597.02435302734375 594.96533203125 589.7325439453125 582.48175048828125 573.418701171875 562.97393798828125 553.76898193359375 548.41900634765625 546.0128173828125 543.976318359375 544.16552734375 546.31732177734375 550.60211181640625 562.98681640625 571.6962890625 580.28936767578125 588.24981689453125 594.58441162109375 600.85504150390625 608.5732421875 618.09588623046875 628.3782958984375 639.5465087890625 651.80718994140625 660.1387939453125 662.3876953125 660.9564208984375      0      0      0
0      0      0      0 737.739013671875 745.58050537109375 755.5020751953125 766.96160888671875 777.65802001953125 783.5465087890625 786.10052490234375 789.81475830078125 799.04833984375 801.55755615234375 803.17633056640625 803.18585205078125 802.06549072265625 798.63897705078125 796.4200439453125 793.717041015625 788.864501953125 783.453369140625 778.90960693359375 774.1632080078125 769.04364013671875 758.07708740234375 752.88226318359375 746.75616455078125 740.28668212890625 734.75103759765625 727.16729736328125 718.855224609375 712.7513427734375 708.28131103515625 712.8594970703125 709.78338623046875 705.538818359375 699.95770263671875 693.75836181640625 682.49945068359375 679.2811279296875 677.4017333984375 675.8187255859375 674.1824951171875 672.32208251953125 670.5704345703125 669.872802734375 668.70709228515625 666.1982421875 665.08221435546875 665.63897705078125 666.104736328125 664.4454345703125 665.01361083984375 665.84088134765625 665.8802490234375 665.158447265625 664.99127197265625 665.40509033203125 665.91265869140625 666.6566162109375 666.92657470703125 665.91778564453125 665.47857666015625 667.33087158203125 670.4283447265625 675.21673583984375 674.79046630859375 672.34075927734375 664.12835693359375 657.1639404296875 647.36859130859375 640.00384521484375 637.09490966796875 637.68792724609375 639.82611083984375 642.78515625 647.1173095703125 650.633056640625 648.09173583984375 643.50225830078125 640.13177490234375 637.57904052734375 634.91436767578125 632.82891845703125 631.61920166015625 630.6812744140625 627.1182861328125 627.71734619140625 629.0216064453125 629.63250732421875 629.2249755859375 628.63665771484375 630.94866943359375 632.951904296875 634.7445068359375 633.630126953125 631.81256103515625 632.51458740234375 634.7860107421875 637.31207275390625 639.20404052734375 640.3734130859375 642.1136474609375 644.1358642578125 632.60699462890625 631.88494873046875 630.65936279296875 629.3431396484375 627.81427001953125 625.9453125 624.89422607421875 625.70123291015625 627.80291748046875 630.681396484375 633.41168212890625 634.4151611328125 634.23468017578125 635.11273193359375 636.89971923828125 643.89404296875 648.99847412109375 652.88482666015625 647.932373046875 648.40032958984375 645.45953369140625 639.74859619140625 633.1185302734375 625.689697265625 616.07733154296875 606.0946044921875 598.63897705078125 593.50579833984375 587.4306640625 587.4149169921875 588.7879638671875 589.16619873046875 588.70648193359375 588.50946044921875 588.88262939453125 589.07244873046875 580.6654052734375 583.041015625 585.360595703125 587.00701904296875 587.702392578125 587.6495361328125 586.56951904296875 582.12445068359375 574.86895751953125 567.04669189453125 559.7755126953125 552.83544921875 547.57415771484375 544.412109375 542.29541015625 542.80096435546875 546.31732177734375 550.60211181640625 555.3341064453125 572.3499755859375 581.37823486328125 589.42327880859375 594.802734375 599.26434326171875 605.92413330078125 614.70648193359375 624.40740966796875 634.76953125 646.1014404296875 654.36676025390625 656.8099365234375 655.0374755859375      0      0      0
0      0      0      0 732.83673095703125 739.72515869140625 749.16986083984375 758.7786865234375 766.30511474609375 770.27764892578125 773.11749267578125 777.7294921875 785.311767578125 801.4267578125 806.089599609375 805.88677978515625 802.06549072265625 798.63897705078125 789.337646484375 787.6810302734375 787.5540771484375 786.9075927734375 784.88934326171875 781.00982666015625 776.1678466796875 771.3824462890625 762.73541259765625 758.3319091796875 752.4254150390625 745.855224609375 737.55615234375 729.3612060546875 722.3209228515625 716.535400390625 712.8594970703125 709.78338623046875 715.63330078125 710.57757568359375 704.85400390625 698.5068359375 686.5858154296875 681.663330078125 677.51654052734375 674.97711181640625 673.28741455078125 671.35186767578125 669.449462890625 667.13494873046875 664.8770751953125 663.915283203125 664.04071044921875 664.10089111328125 664.0858154296875 665.01361083984375 662.94610595703125 662.15765380859375 661.4300537109375 661.515869140625 661.31494140625 660.60687255859375 660.2303466796875 660.24462890625 659.3287353515625 658.16351318359375 658.885498046875 660.71563720703125 662.87591552734375 666.01422119140625 666.41455078125 664.12835693359375 657.1639404296875 646.53607177734375 639.7650146484375 635.5745849609375 635.4765625 637.57135009765625 639.7572021484375 641.86651611328125 643.70806884765625 645.75439453125 645.03350830078125 641.84521484375 637.8109130859375 633.8349609375 630.5970458984375 628.465087890625 627.4915771484375 627.1182861328125 627.71734619140625 626.79730224609375 628.46722412109375 628.2479248046875 626.887451171875 625.576904296875 626.00653076171875 627.18292236328125 626.19049072265625 625.2703857421875 627.14642333984375 630.2930908203125 633.07501220703125 634.26165771484375 633.52679443359375 632.1607666015625 632.02020263671875 632.60699462890625 632.51568603515625 622.741943359375 622.84466552734375 620.903076171875 618.1341552734375 616.84674072265625 617.82464599609375 619.5382080078125 621.583251953125 623.1171875 623.01568603515625 622.80975341796875 623.34625244140625 624.75372314453125 628.10223388671875 640.89080810546875 645.06756591796875 647.932373046875 648.40032958984375 632.9417724609375 629.63360595703125 626.4752197265625 621.60009765625 614.25994873046875 606.34234619140625 599.4197998046875 592.6552734375 586.9996337890625 582.865234375 582.32427978515625 581.2520751953125 579.998291015625 579.1048583984375 578.70989990234375 579.334228515625 580.6654052734375 583.041015625 574.58935546875 576.18914794921875 576.876953125 576.54180908203125 576.72576904296875 571.65924072265625 564.45294189453125 558.138916015625 553.84552001953125 549.56683349609375 545.448974609375 542.19036865234375 540.3763427734375 540.9803466796875 544.25244140625 548.9971923828125 555.3341064453125 558.844482421875 574.80352783203125 581.91082763671875 587.48126220703125 592.7198486328125 600.386962890625 610.19281005859375 620.38018798828125 630.3974609375 639.93902587890625 645.7437744140625 646.8841552734375 645.697509765625      0      0      0
0      0      0      0 728.7073974609375 734.16705322265625 742.2528076171875 750.08740234375 755.5181884765625 759.60443115234375 764.56414794921875 770.121337890625 777.65496826171875 797.12335205078125 803.642822265625 802.82830810546875 797.71331787109375 792.97369384765625 789.337646484375 787.6810302734375 784.3258056640625 785.60791015625 783.73944091796875 780.126708984375 775.59722900390625 771.32110595703125 768.1279296875 764.1298828125 760.76190185546875 755.321044921875 748.5140380859375 741.70147705078125 733.5516357421875 725.52813720703125 721.16497802734375 718.92535400390625 715.63330078125 710.57757568359375 714.15362548828125 709.4534912109375 705.38861083984375 695.59722900390625 689.027587890625 684.76043701171875 681.32623291015625 677.3262939453125 672.288818359375 667.640869140625 665.28082275390625 664.09375 663.09228515625 661.98907470703125 661.1356201171875 661.3128662109375 662.94610595703125 658.10491943359375 657.64422607421875 657.46295166015625 656.73492431640625 655.97393798828125 655.75616455078125 655.832275390625 655.2828369140625 654.00537109375 653.20452880859375 653.11602783203125 654.3096923828125 656.1661376953125 659.07623291015625 658.3482666015625 653.72943115234375 646.53607177734375 639.7650146484375 635.19189453125 634.1334228515625 635.1151123046875 635.63330078125 636.1107177734375 637.478759765625 640.131103515625 642.2750244140625 641.5845947265625 638.36090087890625 634.15045166015625 630.05316162109375 626.73101806640625 625.063232421875 624.77532958984375 625.1739501953125 626.79730224609375 628.46722412109375 625.8868408203125 623.98388671875 621.5135498046875 619.87841796875 620.205322265625 619.3367919921875 619.4224853515625 621.8529052734375 625.273681640625 628.095947265625 628.6324462890625 627.07952880859375 624.44744873046875 622.40020751953125 621.727294921875 621.6744384765625 622.00732421875 622.84466552734375 613.12408447265625 610.0050048828125 608.03668212890625 609.024169921875 611.30633544921875 612.5909423828125 612.34716796875 610.94091796875 610.613037109375 611.498779296875 613.114990234375 616.187255859375 621.57659912109375 632.06219482421875 634.3258056640625 635.03076171875 632.9417724609375 629.63360595703125 622.16363525390625 617.65869140625 610.83782958984375 603.72442626953125 597.11865234375 590.03082275390625 584.65777587890625 582.12176513671875 577.06036376953125 575.25750732421875 574.77191162109375 573.96954345703125 572.351806640625 571.4923095703125 571.720458984375 572.9202880859375 574.58935546875 568.084716796875 567.2601318359375 566.61187744140625 566.56585693359375 565.1697998046875 554.7740478515625 551.31561279296875 550.0206298828125 547.98883056640625 544.58349609375 541.4512939453125 539.728515625 539.6346435546875 541.760986328125 545.7823486328125 551.48504638671875 558.844482421875 567.00689697265625 572.07489013671875 578.00909423828125 585.6451416015625 595.17071533203125 606.3052978515625 617.6090087890625 628.4854736328125 636.97503662109375 639.8768310546875 638.9423828125 637.26092529296875      0      0      0
0      0      0      0 726.8963623046875 731.75982666015625 738.55035400390625 745.2894287109375 749.74932861328125 754.80889892578125 762.90960693359375 770.94549560546875 778.8316650390625 789.009521484375 802.58953857421875 800.05780029296875 793.72076416015625 787.08697509765625 781.971923828125 781.2763671875 784.3258056640625 785.60791015625 778.21435546875 774.896484375 771.15252685546875 767.06646728515625 763.2208251953125 761.26812744140625 760.8338623046875 758.858642578125 754.3446044921875 748.55670166015625 741.443359375 734.0341796875 729.932373046875 727.88970947265625 724.11614990234375 718.88189697265625 714.15362548828125 709.4534912109375 715.918701171875 710.85772705078125 704.9764404296875 699.27117919921875 693.10931396484375 686.8709716796875 679.95452880859375 673.8245849609375 670.032958984375 667.26458740234375 664.61956787109375 662.0809326171875 660.0751953125 659.37017822265625 659.5125732421875 658.10491943359375 657.64422607421875 654.701904296875 653.72882080078125 653.2464599609375 653.07415771484375 652.94921875 652.29315185546875 651.0023193359375 649.19403076171875 647.90838623046875 648.42022705078125 649.90130615234375 650.85296630859375 650.501220703125 649.22552490234375 645.80047607421875 640.04638671875 635.19189453125 634.1334228515625 631.25225830078125 630.92169189453125 631.3692626953125 632.4268798828125 633.79266357421875 634.8826904296875 635.61077880859375 635.02423095703125 632.1094970703125 628.10467529296875 623.940673828125 621.4415283203125 621.2684326171875 621.96923828125 623.47235107421875 625.61322021484375 625.8868408203125 623.98388671875 617.5946044921875 616.203857421875 615.59124755859375 615.81231689453125 616.37054443359375 617.00927734375 618.81561279296875 621.3751220703125 622.27801513671875 621.18853759765625 618.58734130859375 615.92938232421875 614.5330810546875 614.490234375 615.22930908203125 616.13238525390625 613.12408447265625 610.0050048828125 600.80560302734375 600.34271240234375 602.405517578125 603.81805419921875 603.33734130859375 601.09515380859375 599.70355224609375 600.474609375 602.38519287109375 604.77587890625 608.49969482421875 613.41937255859375 620.2779541015625 622.3941650390625 623.6671142578125 623.92413330078125 622.16363525390625 617.65869140625 606.88323974609375 600.17431640625 594.23211669921875 588.8912353515625 584.97760009765625 582.47174072265625 578.81622314453125 572.82867431640625 572.97760009765625 572.58050537109375 570.07073974609375 567.3560791015625 566.22589111328125 566.5306396484375 567.6063232421875 568.084716796875 567.2601318359375 560.1422119140625 559.431884765625 558.09283447265625 555.10711669921875 551.37847900390625 551.89544677734375 550.80657958984375 546.77117919921875 542.57122802734375 540.27899169921875 539.5333251953125 540.38787841796875 542.56683349609375 546.0328369140625 551.7501220703125 559.17919921875 566.194091796875 578.00909423828125 581.15570068359375 592.13909912109375 603.94342041015625 615.9205322265625 627.4090576171875 635.55987548828125 637.6812744140625 635.08447265625 629.81170654296875      0      0      0
0      0      0      0 726.8963623046875 731.75982666015625 738.328125 744.5062255859375 749.18115234375 755.24530029296875 764.59466552734375 774.5416259765625 784.09796142578125 794.40863037109375 801.97430419921875 797.51837158203125 789.0001220703125 780.73895263671875 775.32232666015625 774.75762939453125 778.0869140625 779.8192138671875 778.21435546875 774.896484375 765.13238525390625 761.19464111328125 756.60272216796875 754.04766845703125 754.23492431640625 755.52996826171875 753.08953857421875 747.88751220703125 741.53460693359375 736.3114013671875 733.3016357421875 730.4981689453125 725.85809326171875 721.14495849609375 718.13812255859375 716.33721923828125 715.918701171875 718.467041015625 714.08233642578125 709.5360107421875 703.8350830078125 697.478759765625 690.37164306640625 683.58673095703125 677.85968017578125 672.36859130859375 667.711669921875 663.89111328125 660.3675537109375 658.12054443359375 657.030517578125 656.278076171875 655.65838623046875 654.701904296875 653.72882080078125 651.3380126953125 651.07501220703125 650.3240966796875 648.82470703125 647.02496337890625 645.24774169921875 644.10791015625 643.49420166015625 643.17584228515625 642.63995361328125 642.54876708984375 643.82867431640625 642.32666015625 637.40179443359375 633.2857666015625 631.8082275390625 631.25225830078125 630.92169189453125 627.61016845703125 627.59063720703125 627.62078857421875 627.92633056640625 628.22930908203125 628.464599609375 627.26983642578125 624.63934326171875 620.634033203125 617.5872802734375 616.8017578125 617.24346923828125 618.26513671875 620.010498046875 620.44635009765625 619.1441650390625 617.5946044921875 616.203857421875 611.953125 613.36077880859375 613.80621337890625 612.54400634765625 612.37689208984375 614.35174560546875 615.75323486328125 615.04498291015625 612.70465087890625 610.243896484375 609.25982666015625 609.3798828125 609.54937744140625 609.696044921875 608.87774658203125 603.7718505859375 600.80560302734375 600.34271240234375 595.09368896484375 595.8846435546875 595.3695068359375 593.89422607421875 592.7313232421875 592.59649658203125 594.091064453125 596.6162109375 600.01220703125 603.29620361328125 608.1318359375 610.23797607421875 612.07763671875 614.70489501953125 615.5333251953125 612.68218994140625 606.88323974609375 597.968994140625 593.2686767578125 589.3873291015625 586.36676025390625 583.34619140625 579.479736328125 576.387451171875 575.13055419921875 574.93243408203125 572.7176513671875 569.73541259765625 568.15924072265625 567.54486083984375 566.76788330078125 564.88128662109375 561.97003173828125 560.1422119140625 559.431884765625 557.54522705078125 555.8963623046875 555.90374755859375 557.3173828125 555.99932861328125 550.93292236328125 544.90966796875 541.23980712890625 539.77496337890625 538.9599609375 538.81988525390625 539.9942626953125 544.1217041015625 550.82867431640625 557.6400146484375 564.24072265625 581.15570068359375 592.13909912109375 601.29229736328125 612.8204345703125 624.306396484375 633.00531005859375 635.53900146484375 630.80682373046875 621.57958984375      0      0      0
0      0      0      0 726.22723388671875 731.79742431640625 738.328125 744.5062255859375 750.923583984375 758.83453369140625 767.86444091796875 776.9090576171875 786.04107666015625 793.75091552734375 798.6185302734375 798.457763671875 782.79632568359375 773.8756103515625 768.9517822265625 768.22760009765625 770.2855224609375 772.16802978515625 771.453369140625 768.524658203125 765.13238525390625 754.36724853515625 750.429443359375 747.9898681640625 747.914306640625 748.6646728515625 746.3935546875 741.7109375 735.34429931640625 730.9781494140625 728.67437744140625 725.43109130859375 720.9189453125 717.10284423828125 715.50823974609375 716.02105712890625 717.649169921875 718.467041015625 717.06756591796875 711.24072265625 709.01910400390625 704.5660400390625 698.01239013671875 691.01776123046875 684.51080322265625 677.642333984375 670.7642822265625 665.22503662109375 660.49615478515625 656.68658447265625 654.978759765625 654.23828125 653.93792724609375 652.70947265625 651.7872314453125 651.3380126953125 651.07501220703125 648.09521484375 646.1759033203125 644.11749267578125 643.14556884765625 641.8978271484375 639.4722900390625 637.1641845703125 635.8909912109375 635.6678466796875 637.4825439453125 635.6956787109375 631.73773193359375 629.27215576171875 628.67449951171875 627.8592529296875 627.4197998046875 627.61016845703125 627.59063720703125 622.45733642578125 622.1611328125 621.1158447265625 620.408935546875 620.47576904296875 620.0611572265625 616.9051513671875 614.01434326171875 612.81622314453125 613.5072021484375 614.629150390625 615.24688720703125 615.293212890625 614.70611572265625 614.05694580078125 612.9326171875 611.953125 612.18402099609375 609.52838134765625 608.038818359375 607.31634521484375 608.390869140625 609.09765625 608.27874755859375 606.31182861328125 604.65399169921875 604.12109375 603.8990478515625 603.52294921875 603.396240234375 602.64501953125 601.03521728515625 596.51611328125 594.63189697265625 595.09368896484375 595.8846435546875 589.24951171875 588.25018310546875 587.6683349609375 587.477783203125 588.82537841796875 591.51678466796875 593.8994140625 594.74383544921875 594.88580322265625 597.80511474609375 599.503662109375 602.62353515625 605.55517578125 605.75592041015625 602.81390380859375 597.968994140625 593.2686767578125 589.95184326171875 587.45416259765625 584.82659912109375 582.50848388671875 581.47100830078125 580.9603271484375 581.05792236328125 580.3336181640625 578.06951904296875 575.76507568359375 573.4102783203125 570.65338134765625 566.8345947265625 562.38818359375 559.50201416015625 558.41424560546875 557.54522705078125 555.8963623046875 561.74432373046875 562.8192138671875 559.71014404296875 552.9771728515625 545.6661376953125 540.88531494140625 538.08740234375 535.86920166015625 534.52105712890625 535.01715087890625 538.4986572265625 544.2843017578125 551.34930419921875 559.2098388671875 567.8963623046875 589.55889892578125 601.29229736328125 612.8204345703125 619.2257080078125 627.1116943359375 629.070068359375 623.48236083984375 614.1383056640625      0      0      0
0      0      0      0 725.02001953125 730.26239013671875 736.65948486328125 743.94744873046875 750.923583984375 758.83453369140625 769.50048828125 776.5772705078125 783.158447265625 787.9776611328125 790.471923828125 789.83056640625 784.896240234375 768.84014892578125 763.28424072265625 761.91302490234375 764.257080078125 766.4130859375 765.5203857421875 762.30694580078125 758.2169189453125 754.36724853515625 750.429443359375 742.3538818359375 742.09161376953125 741.03900146484375 739.1864013671875 732.19830322265625 726.653076171875 722.944091796875 721.60662841796875 719.010498046875 714.9505615234375 711.72735595703125 710.32086181640625 710.5621337890625 711.5941162109375 712.94683837890625 713.36663818359375 712.454345703125 709.01910400390625 706.18365478515625 701.49432373046875 695.96893310546875 690.3826904296875 684.06591796875 676.82666015625 670.44940185546875 664.80279541015625 659.940673828125 657.08056640625 654.86773681640625 652.96478271484375 651.33447265625 648.3533935546875 648.48065185546875 648.639892578125 648.09521484375 646.1759033203125 642.20269775390625 641.73681640625 639.80084228515625 636.09454345703125 633.30181884765625 632.14617919921875 631.38037109375 630.98553466796875 629.6112060546875 627.14312744140625 625.88189697265625 625.67242431640625 625.35760498046875 625.01971435546875 624.29022216796875 622.961181640625 622.45733642578125 622.1611328125 615.587890625 613.97686767578125 613.34112548828125 613.6943359375 612.2984619140625 610.71417236328125 610.45166015625 611.3031005859375 611.83673095703125 611.8291015625 611.7813720703125 611.26141357421875 610.76470947265625 609.9876708984375 609.05303955078125 609.0386962890625 609.5504150390625 608.038818359375 603.46478271484375 603.742919921875 603.336669921875 602.58306884765625 601.0086669921875 599.981201171875 599.96868896484375 599.6885986328125 599.21795654296875 598.55413818359375 597.4033203125 596.21331787109375 594.89544677734375 590.6728515625 590.251708984375 590.1610107421875 589.24951171875 584.11968994140625 583.74542236328125 583.97515869140625 584.8895263671875 586.5426025390625 586.94708251953125 585.48370361328125 584.1361083984375 584.4967041015625 589.27813720703125 591.309814453125 593.36505126953125 595.52410888671875 595.92803955078125 594.578369140625 592.5545654296875 589.95184326171875 587.45416259765625 584.96588134765625 583.961181640625 583.7366943359375 583.94775390625 584.68658447265625 586.84405517578125 585.39483642578125 583.92913818359375 582.00457763671875 578.9478759765625 575.01300048828125 570.80230712890625 567.18585205078125 564.9908447265625 563.68804931640625 562.24200439453125 561.74432373046875 562.6094970703125 561.87701416015625 552.757568359375 544.65228271484375 538.99609375 534.923095703125 532.32379150390625 531.13519287109375 531.96112060546875 534.86041259765625 539.11517333984375 545.4376220703125 553.92559814453125 563.32659912109375 573.3944091796875 596.61505126953125 608.50927734375 619.2257080078125 627.1116943359375 620.42059326171875 614.923583984375 607.2220458984375      0      0      0
0      0      0      0      0 726.89996337890625 732.6435546875 740.90826416015625 750.71929931640625 760.6549072265625 769.50048828125 772.0953369140625 776.079833984375 778.13323974609375 779.02874755859375 778.82861328125 776.58258056640625 771.0206298828125 757.472900390625 755.66827392578125 757.7557373046875 759.86651611328125 758.9176025390625 755.0155029296875 750.503662109375 746.73162841796875 743.61358642578125 742.3538818359375 742.09161376953125 731.849365234375 729.58087158203125 726.47479248046875 719.0740966796875 717.19232177734375 716.95098876953125 715.43780517578125 712.10076904296875 708.777099609375 706.53118896484375 705.44635009765625 705.17987060546875 705.45025634765625 705.37457275390625 705.63922119140625 707.2152099609375 706.18365478515625 701.49432373046875 698.30511474609375 694.6712646484375 689.55548095703125 683.97003173828125 679.15045166015625 674.69384765625 670.06982421875 665.889892578125 661.88427734375 657.68975830078125 653.3350830078125 648.73626708984375 645.52825927734375 645.5030517578125 645.346923828125 643.65289306640625 642.20269775390625 641.73681640625 636.59771728515625 633.30047607421875 631.15960693359375 630.37994384765625 628.94024658203125 627.23455810546875 626.8297119140625 624.2276611328125 622.8323974609375 622.26605224609375 622.62249755859375 622.81317138671875 621.70257568359375 619.7607421875 618.71563720703125 617.581787109375 615.587890625 613.97686767578125 609.41119384765625 608.51715087890625 608.34271240234375 607.95037841796875 608.19696044921875 608.239013671875 608.52191162109375 608.9658203125 608.90020751953125 608.5987548828125 608.10467529296875 607.1202392578125 605.91558837890625 605.2572021484375 604.6346435546875 604.16241455078125 603.46478271484375 600.2060546875 599.66876220703125 598.84539794921875 597.02618408203125 596.08697509765625 596.400390625 596.37738037109375 595.82244873046875 594.35247802734375 592.94256591796875 591.71673583984375 589.9085693359375 588.03118896484375 587.17218017578125 587.18414306640625 585.8572998046875 584.11968994140625 583.74542236328125 581.0262451171875 580.0306396484375 579.84393310546875 579.63226318359375 577.87603759765625 575.77862548828125 575.5836181640625 577.5299072265625 580.11346435546875 581.50115966796875 584.3404541015625 586.3609619140625 587.1243896484375 587.48138427734375 586.74920654296875 585.8167724609375 584.96588134765625 583.961181640625 579.26763916015625 580.86138916015625 583.4443359375 586.5748291015625 587.98046875 589.40093994140625 590.46575927734375 589.03094482421875 586.51861572265625 583.3331298828125 578.77203369140625 574.99725341796875 573.41619873046875 572.59722900390625 572.34918212890625 571.46539306640625 568.32073974609375 552.757568359375 545.69317626953125 539.45721435546875 535.07379150390625 531.51287841796875 529.31085205078125 529.86700439453125 532.03228759765625 534.87908935546875 539.72003173828125 547.67095947265625 556.99957275390625 566.88055419921875 578.4447021484375 604.1263427734375 613.88739013671875 619.86627197265625 620.42059326171875 614.923583984375 598.70587158203125      0      0      0
0      0      0      0      0 724.0113525390625 729.06585693359375 737.24176025390625 747.75518798828125 757.8828125 766.18499755859375 772.0953369140625 776.079833984375 767.58209228515625 767.4140625 768.02130126953125 768.262451171875 765.4105224609375 759.3114013671875 750.9747314453125 750.63128662109375 752.01898193359375 751.4197998046875 747.6663818359375 743.72332763671875 740.09130859375 736.77288818359375 735.0760498046875 733.71893310546875 731.849365234375 729.58087158203125 721.3424072265625 717.88824462890625 717.3875732421875 716.814208984375 716.0145263671875 713.68310546875 709.96990966796875 706.8211669921875 704.93719482421875 704.0714111328125 702.67669677734375 700.64703369140625 700.33526611328125 702.38458251953125 704.4700927734375 700.90966796875 698.30511474609375 694.6712646484375 689.74444580078125 685.93731689453125 683.2587890625 681.00970458984375 677.59759521484375 674.228271484375 671.0543212890625 666.5015869140625 661.29974365234375 656.1854248046875 651.416259765625 644.9456787109375 642.51165771484375 640.36767578125 639.1151123046875 638.51690673828125 636.59771728515625 633.30047607421875 632.528076171875 632.52239990234375 630.8668212890625 627.8978271484375 626.237548828125 625.04388427734375 620.956787109375 620.20587158203125 620.7083740234375 621.081298828125 620.0750732421875 617.86376953125 616.05670166015625 614.44476318359375 612.43017578125 610.72271728515625 609.41119384765625 608.51715087890625 605.28619384765625 604.82489013671875 604.07379150390625 603.912841796875 604.76263427734375 605.5540771484375 605.5550537109375 605.50994873046875 604.90460205078125 603.29595947265625 601.7366943359375 600.7420654296875 600.0260009765625 599.63079833984375 599.74578857421875 600.2060546875 599.66876220703125 595.28802490234375 593.11767578125 592.3779296875 592.76092529296875 593.0672607421875 592.52239990234375 590.69000244140625 588.9136962890625 587.38653564453125 585.56072998046875 584.33758544921875 584.68487548828125 584.5118408203125 582.89178466796875 581.1492919921875 581.085205078125 581.0262451171875 580.0306396484375 573.4654541015625 573.3189697265625 572.32012939453125 570.33056640625 569.74310302734375 570.885009765625 571.4337158203125 571.58074951171875 573.657958984375 575.7196044921875 576.76287841796875 577.69439697265625 578.30499267578125 578.94921875 579.3177490234375 578.91107177734375 579.26763916015625 580.86138916015625 576.692138671875 580.72918701171875 584.00750732421875 590.80230712890625 594.03216552734375 594.3250732421875 593.05926513671875 590.2196044921875 585.8148193359375 582.4322509765625 581.255126953125 580.77716064453125 580.05987548828125 577.63287353515625 572.39154052734375 564.292236328125 545.69317626953125 539.45721435546875 538.66070556640625 533.599609375 529.43829345703125 528.525390625 530.0028076171875 532.03619384765625 535.65142822265625 542.156982421875 550.40667724609375 559.91552734375 572.3173828125 586.50054931640625 608.9427490234375 613.6624755859375 612.755615234375 606.49383544921875 598.70587158203125      0      0      0
